ply
format ascii 1.0
comment Created by CloudCompare v2.10.2 (Zephyrus)
comment Created 2019-03-07 ���� 3:45
obj_info Generated by CloudCompare!
element vertex 2150
property float x
property float y
property float z
property uchar red
property uchar green
property uchar blue
property uchar alpha
end_header
119.546 169.052 121.494
119.237 169.747 122.747
119.008 169 152.533
119.627 169.09 176.91
119.504 171 99.1429
119.271 171 117.701
119.332 171 119.708
119.784 170.189 120.811
119.077 170.006 128.994
119.481 171 152.578
119.245 170.894 153.649
119.759 170.983 175.017
119.654 171.378 95.378
119.953 172 96.8869
119.108 172 97.2469
119.358 172 97.2469
119.126 171.904 98.0958
119.1 171.748 100
119.121 171.23 114.23
119.76 171.827 115.933
119.539 171.597 123.597
119.997 172 124.316
119.348 172 125.307
119.851 172 126.144
119.216 171.137 127.863
119.562 171.331 128.231
119.164 171.481 152.836
119.906 171.165 163.165
119.541 171.998 170.46
119.024 171.976 171.077
119.806 171.194 171.628
119.041 171.349 174.61
119.3 172.265 125.035
119.425 172 126.291
119.919 172.408 152.081
119.972 172.098 153.127
119.193 172.072 163.072
119.729 173.996 92.7332
119.257 173.257 93.6527
119.959 173.959 94.6077
119.008 173.008 95.2444
119.677 173.677 95.6183
119.445 173.6 99.8444
119.213 173.063 100
119.437 173.16 114.723
119.241 173 114.587
119.327 173 119.316
119.096 173.146 153.05
119.517 173.328 154.811
119.475 173.238 164
119.352 174 167.278
119.077 173.704 168.296
119.122 174.635 91.4871
119.949 174.717 121.717
119.633 174.651 123.982
119.066 174.974 165.039
119.761 175.46 122
119.091 175.956 123.091
119.321 175.28 123.321
119.265 175.494 154.229
119.659 175.801 166.46
119.45 176.397 90.6031
119.668 176.727 90.2734
119.353 176.5 122.5
119.768 176.709 122.709
119.37 176.377 123.748
119.526 176.193 166.526
119.501 176.764 166.501
119.719 177.072 123.072
119.398 177.615 123.615
119.141 177.028 124
119.187 177.464 156
119.674 177.968 157
119.809 177.464 167.273
119.572 178.974 90
119.996 178.111 167.884
119.131 179.283 157
119.868 179.853 158.72
119.237 179.602 158
119.743 179.779 167
119.355 180.329 158.684
119.129 180.333 166.667
119.556 180.725 166.275
119.606 182 146.723
119.06 182 148.642
119.991 182 148.303
119.92 181.278 155.802
119.617 181.316 165.684
119.151 182.868 144.98
119.892 182.13 154.978
119.047 182.886 161.934
119.484 183.108 91
119.807 183.193 144.017
119.741 183.259 146.88
119.074 183.467 149.541
119.314 183.686 152.245
119.985 183.162 153.147
119.901 184.268 91
119.49 184.634 109
119.416 185 131.513
119.864 184.75 153.864
119.449 185.672 109
119.836 185.206 109.042
119.235 185.61 109
119.783 185.676 119
119.19 185.019 132.19
119.96 185.072 153.96
119.012 185.257 153.012
120 186.183 109.762
119.515 186.878 110
119.492 186.824 110.316
119.499 186.211 153.499
119.431 187.909 110
119.482 187.261 110.743
119.232 187.101 130
119.237 187.685 130.315
119.153 188.552 110.552
119.567 188.566 122.433
119.04 188.866 128.174
119.387 188.524 130
119.389 189.52 111.52
119.361 189.342 112.703
119.257 189.756 113.013
119.729 189.278 118.722
119.885 189.989 121.126
119.51 189.787 125.296
119.125 189.552 127.323
119.835 190.168 91.1678
119.822 190.362 94.6384
119.206 190.265 95
119.144 190.138 113.994
119.063 191 115.43
119 190.94 122.8
119.097 190.084 129.903
119.936 190.433 129.064
119.459 191 149.86
119.023 190.196 150.804
119.768 191.101 93.8986
119.573 191.67 93.3303
119.156 191.333 115.333
119.989 191.887 121.011
119.591 191.563 123.591
119.012 191.052 130.04
119.077 192.386 94
119.643 192.612 116.612
119.99 192.443 121.453
119.667 192.341 123.326
119.738 192.267 130.528
119.27 192.898 131.628
119.938 193 135.236
119.279 193 137.509
119.555 193 140.152
119.125 193 141.994
119.062 193 142.503
119.814 193 143.502
119.771 192.05 144.722
119.513 193.513 132.528
119.682 194.698 94.6983
119.299 195.798 95.7985
119.101 195.67 115.33
119.926 195.567 115.433
119.349 196.639 96.6394
119.515 198 100.633
119.46 198 102.743
119.78 198 102.507
119.093 198 103.864
119.787 198 103.236
119.72 197.979 104.28
119 197.21 105.06
119.85 198 112.72
119.923 198.674 104.751
119.93 198.93 105.103
119.505 198.505 106.083
119.608 199 108.439
120.708 60.2922 111.162
120.515 60.4849 112.336
120.262 60.8774 113.139
120.084 61.6106 106.473
120.504 61.2037 109.796
120.194 61.5554 109.445
120.125 61.134 115.259
120.897 62 104.828
120.218 62 105.471
120.295 62.1058 117.106
120.257 62.9371 117.937
120.391 64.6947 94.9145
120.455 64 95.5982
120.285 64 96.0158
120.694 64 98.9214
120.001 64.4384 101.563
120.05 65.95 93.36
120.502 65.4977 93.0195
120.063 65.3245 94.6121
120.039 65.6557 101.039
120.39 66.2976 92.6103
120.114 66.0821 100.968
120.261 66.9535 101.692
120.902 66.4459 119.348
120.817 67.5513 92.1829
120 67.6761 93.8272
120.567 67.4153 101
120.012 67.5743 119.586
120.19 68.9755 101
120.578 68.285 121.137
120.577 68.9536 146.624
120.045 68.6923 147.647
120.054 69.0692 86.9843
120.214 69.6583 91.4441
120.982 69.1045 92.1228
120.116 69.4548 93.3391
120.145 69.7112 101
120.728 69.2684 120.003
120.549 69.8822 142.569
120.544 69.2719 143.184
120.123 69.6207 150.498
120.875 70.4533 86.4218
120.085 70.615 86
120.503 70.0533 91.5507
120.767 70.8443 127.233
120.274 70.1802 134.094
120.347 70 136.999
120.414 70 136.244
120.324 70 138.806
120.653 70 141.24
120.201 70 142.5
120.845 71.8561 102.011
120.324 71 128.898
120.395 71 129.409
120.816 71 129.319
120.054 71 130.583
120.621 71 131.761
120.192 71.7975 151
120.486 71.6213 151
120.565 72.9269 85.0731
120.692 72.4147 102
120.527 72.741 103.214
120.881 72.5243 151
120.633 72.7765 154.857
120.721 72.2208 155.501
120.633 72 155.777
120.803 73 102.637
120.731 73.3257 153.674
120.288 73.8235 153.176
120.207 74.3759 159.583
120.904 75.5477 85
120.042 75.2904 126
120.612 75.0763 150
120.834 75.9239 150
120.099 75.8587 161.859
120.155 75.9345 161.935
120.552 76.7111 85
120.67 76.9975 125
120.332 76.416 126
120.306 76.7783 126
120.011 76.7011 150
120.999 77.3044 85.3044
120.046 77.9185 149.127
120.599 77.169 150
120.039 77.196 150.843
120.083 78.42 86
120.818 78.203 149.615
120.426 79.2583 86
120.38 79.8576 114.477
120.499 79.1751 149
120.132 79.8579 165.858
120.456 80.9888 86.9888
120.024 80.8405 94.8646
120.991 80.5185 112.473
120.129 80.6445 114.227
120.722 80.9075 114
120.802 80.6352 124
120.612 80.7789 166.167
120.243 81.9094 91.3338
120.654 81 93.3725
120.851 81 94.9159
120.161 81.4035 95.4035
120.784 81.4938 111.291
120.498 81.0544 123.946
120.262 81.4978 150
120.676 81.759 166.324
120.513 83 89.3857
120.782 82.9701 90.0299
120.932 82.4608 91.5392
120 82.2033 96.6321
120.864 82.6919 114.828
120.705 83 115.509
120.359 83 116.209
120.03 82.6134 124.03
120.915 82.5563 166.085
120.623 83.9679 91
120.385 83 111.843
120.24 83 113.233
120.84 83.8278 114.828
120.838 83.8668 121.971
120.755 83.0619 122.693
120.263 83 122.369
120.169 83.4454 149
120.45 83.5871 149.863
120.388 84.0652 121.323
120.11 84.4036 149
120.897 84.4731 149.897
120.96 84.942 166.982
120.463 84.6881 167.225
120.464 85.3369 90
121 85.371 166.107
120.633 86.7233 87.9092
120.151 86.1514 88.0875
120.602 86.7584 118
120.822 86.6231 128.623
120.594 86.8255 128.825
120.517 87 129.012
120.829 87.6125 87.2164
120.42 87.4264 118.426
120.207 87.9267 118.927
120.649 87.148 128
120.89 87.5261 128
120.886 87.1023 129.216
120.594 87.1751 166.406
120.685 88.0141 86.6712
120.602 88.0975 130.496
120.048 88.5976 166.952
120.474 88.2144 166.526
120.372 88.6276 169.355
120.594 88.4307 170.025
120.7 89.3416 129
120.973 89.9729 129.454
120.59 89.2874 131
120 89.7609 168.86
120 89.5904 170.442
120.906 89.8986 171.805
120.619 90.8225 85.7965
120.92 90.6728 103.92
120.785 90.0691 103.785
120 90.5573 168.77
120.672 90.253 171.925
121 91.3053 131.373
120 91.3536 171.462
120.567 91.1407 172.707
120.002 92.9343 85.9367
120.832 92.995 86.8269
120.402 93 91.9651
120 92.1301 93.9623
121 92.9898 133.045
120.508 92.5032 173.508
120.316 92.8411 173.316
120.286 93.0021 93.7119
120 93.9758 171.604
120.714 93.542 173.714
120.656 94.3437 88.9788
120 94.3625 171.186
120 94.3534 172.897
120 94.8491 173.848
120.697 96.3968 92.3002
120.831 96.2024 176.033
120.395 97.2473 176.643
120.137 99.8942 91
120.742 99.7742 177
120.042 100.667 91
120.401 100.985 177
120.17 102.051 92
120.05 103.957 92.9566
120.015 104 174.904
120.088 103.503 175.41
120.263 104.231 173.769
120.392 105.223 172.777
120.085 105 178.736
120.061 106.263 92
120.548 107 168.842
120.049 107 169.196
120.707 107 169.575
120.367 107 170.949
120.943 106.769 182.713
120.844 107.439 92
120.87 108 167.478
120.455 107.066 168.388
120.366 107 172.131
120.267 108.749 92.7489
120.916 109 93.8757
120.161 108 167.743
120.764 108 168.751
120.695 108.97 183
120.258 109.691 94.9498
120.037 109.963 95.8239
120.731 109.394 96.1246
120.534 109.228 112
120.919 109.869 112
120.052 109.952 113
120.089 109.601 183
120.366 110.091 97.0915
120.032 110.877 97.8767
120.464 110.8 183
120.043 111.001 98.0012
120.242 111.448 98.4478
120.658 111.794 110.864
120.342 111.197 113.342
121 111.306 114.917
120.026 112.451 99.4511
120.549 113 101.132
120.138 113 102.309
120.843 112.393 110.45
120.769 112.813 112.418
120.377 113.239 104.616
120.557 113.271 110
120.616 113.814 110
120.589 113.16 112.251
120 113.335 112.783
120.203 113.565 182.638
120.364 114.873 107.237
120.99 114.075 111
120.238 114.899 181.339
120.906 114.162 182.744
120.336 115.204 181.132
120.113 116.983 111
120.447 116.773 175
120.637 116.637 177.737
120.952 116.581 178.371
120.712 117.979 156.691
120.918 117.998 174.92
120.924 118.925 112.849
120.497 118.321 155.497
120.594 118.739 156.594
120.228 118.168 156.228
120.842 118.354 174.842
120.689 119.242 112.931
120.515 119.429 174.944
120.459 120.563 113
120.301 120.753 156.753
120.028 120.717 157.028
120.092 120.766 175
120.36 120.676 175
120.616 121.5 112.5
120.254 121.758 112.242
120.111 121.372 166
120.191 121.918 166
120.9 122.572 166
120.195 122.396 175.195
120.316 123.619 158
120.437 123.957 166
120.829 123.341 166.513
120.09 123.16 175.25
120.415 123.931 176.345
120.931 124.711 112
120.367 124.446 166
120.518 124.687 166
120.002 124.912 167.911
120.852 125.289 112
120.797 125.508 158.695
120.356 125.897 159.253
120.061 126 159.922
120.406 125.589 165.411
120.249 125.33 168.081
120.423 125.623 174.8
120.763 127 122.904
120.337 126.602 124.735
120.56 126.676 125.116
120.165 126.333 146.832
120.759 126.775 157.225
120.57 126.772 164.228
120.207 126.208 169.001
120.026 126.099 173.926
120.977 126.742 174.235
120.715 127.991 146.715
120.695 127.136 149.136
120.325 128 151.619
120.745 128 152.09
120.588 128 154.083
120.709 128 155.055
120.772 127.769 156.231
120.614 127.584 161.584
120.381 127.733 162.648
120.481 128 162.423
120.749 128.385 122.749
120.072 128 127.711
120.04 128.155 148.845
120.21 128.341 151.341
120.498 128 160.8
120.704 128 161.86
120.796 128 161.431
120.417 129.583 92.1754
120.009 129.991 93.6511
120.353 129.647 93.1068
120.932 129.665 95.5967
120.487 129.855 112.487
120.162 129.443 112.162
120.287 129.102 147.898
120.325 129.883 147.117
120.406 129.307 152.307
120.43 130.03 89.5703
120.692 130.455 89.3076
120 130.74 93.2952
120 130.067 94.0455
120.044 130.865 95.9091
120 130.473 95.3802
120.726 130.274 97.6939
120.86 130.275 112.86
120.314 130.501 154.813
120.934 130.425 163.491
120.12 130.12 164.442
120.487 130.099 176.901
120.536 130 178.588
120.053 130 179.209
120.676 130 179.004
120.582 130 180.101
120.428 130.393 182.393
120.383 130.788 182.788
120.541 131.876 87.5834
120 131.323 91.3208
120 131.681 92.4427
120 131.518 96.2234
120.417 131.287 98.4166
120.404 131.805 98.4037
120.478 131.781 153.478
120.532 131.815 154
120.207 131.699 166.907
120.213 131.825 167.039
120.046 131 175.396
120.206 131.168 183.168
120 132.539 88.0497
120 132.003 91.5414
120 132.812 96.074
120.469 132.177 98.4692
120.003 132.628 98.0027
120.746 132.618 153.746
120.396 132.886 153.396
120.525 132.525 171.61
120.705 132.705 171.139
120.523 132.355 173.169
120.024 132 173.759
120.539 133.694 88.1545
120 133.343 88.5156
120 133.255 89.4391
120 133.225 91.4333
120 133.992 91.1587
120 133.691 93.8556
120.66 133.948 94.7112
120 133.46 94.1911
120.498 133.692 96.1935
120 133.292 96.9501
120.005 133.551 113
120.723 133.754 113
120.318 133.541 153.318
120.954 133.236 184.236
120.305 134.24 88.9347
120.08 134.472 89.3917
120.46 134.31 94.4602
120.41 134.73 97.6802
120 134.015 97.1194
120.669 134.225 154
120.945 134.17 170.774
120.783 135.709 89.9261
120.364 135.364 90.1846
120.728 135.728 91.5758
120.403 135.403 92.5258
120.528 135.528 93.8053
120.169 135.502 113
120.852 135.838 113
120.189 135.009 169
120.315 135.793 184
120.645 136.162 168.645
120.915 136.146 183.938
120.658 137.04 112.619
120.125 138.927 111.197
120.683 138.242 112
120.168 139.907 107.261
120.083 139.083 108.555
120.289 139.289 108.11
120.581 139.865 109.284
120.649 139.19 111.649
120.772 139.722 181.506
120.974 140.233 106.741
120.867 140.428 109.561
120.743 140.24 111.743
120.173 140.259 181.567
120.064 141.556 105
120.052 141.313 111.365
120.329 142.309 103.98
120.986 142.986 104.054
120.19 142.237 111.427
120.805 142.878 179.317
120.052 143.199 97.8528
120.527 143.473 179.946
120.066 144.948 96.1186
120.814 144.629 180.443
120.218 146.635 94.5835
120.164 146.568 180.733
120.608 147.313 94.2955
120.316 148.768 93.2322
120.689 148.635 181.689
120.95 149.449 92.5514
120 149.359 180.106
120.579 149.226 181.579
120 150.283 180.594
120 151.885 179.261
120 153.736 178.843
120.264 153.736 179.527
120 153.481 179.249
120.209 154.992 169.992
120.097 155 170.719
120.775 155 170.549
120.078 154.793 178.285
120.964 154.741 179.223
120.463 155.791 91
120.336 155.211 170.547
120.615 155.615 176.34
120.286 155.286 177.462
120.502 155.502 177.966
120.587 156 171.818
120.025 156.448 172.473
120.609 156.428 173.037
120.614 157.62 90
120.416 158.479 176.895
120.399 158.713 177.112
120.333 159.758 90.425
120.005 160.294 90.7004
120.577 160.577 90
120.755 161.91 90.1547
120.668 161.147 179
120.47 163.981 90.5302
120.301 163.468 106.301
120.386 163.909 132.477
120.349 163.664 133
120.508 163.627 179
120.234 164.408 90.7659
120 164.987 131.368
120.815 164.505 133.32
120.317 165.549 132.451
120.191 165.264 132.191
120.231 166.986 91
120.378 166.725 170.103
120.781 167.047 91
120.672 167.715 131.956
120.982 168 132.554
120.273 167.962 150.727
120.725 167.278 150.275
120.367 167.52 177.847
120.763 167.242 178
120.622 168.278 91.278
120.127 168.978 130.149
120.492 168.152 132.34
120.258 168.311 132
120.541 168.55 151.009
120.832 168.235 171
120.941 168.026 170
120.95 168.671 171
120.243 169.842 92.8423
120.546 169.639 129.907
120.864 169.152 130.712
120.427 169.356 150.929
120.354 169.363 170.717
120.256 170.616 93.6163
120.672 170.928 113.255
120.153 170.547 120.606
120.679 170.433 121.246
120.306 170.093 123
120.03 170.501 128.529
120.165 170.868 130.297
120.061 170.515 152
120.663 170.469 172.132
120.163 171 174.259
120.231 170.443 175.557
120.937 170.68 175.32
120.268 171.169 95.1686
120.259 172 96.3711
120.311 171.827 97.8624
120.19 171.516 98.2935
120.437 171.498 99.5633
120.117 171.077 113
120.353 171.744 113
120.757 171.714 114.714
120.222 171.337 114.337
120.15 171.787 116.213
120.899 171.179 116.821
120.115 171.406 117.406
120.562 172 118.964
120.196 172 118.098
120.104 171.769 119.231
120.122 171.553 123.553
120.127 172 126.84
120.002 171.066 127.935
120.713 172 128.506
121 171.978 128.293
120.485 171.358 129
120.623 171.623 129.426
120.294 171.132 152.706
120.147 171.631 170.516
120.107 172.211 99.8934
120.206 172.184 127.022
120 172.201 163.389
120 172.661 164.435
120.67 173.224 99.5532
120.286 173.018 114.018
120.247 173 119.512
120.837 173.511 125.327
120.265 173.984 152.718
120 173.44 164.829
120 173.252 165.066
120.727 173.969 168.758
120.934 173.13 169.803
120.394 174.426 92.968
120.309 174.309 98.7688
120.656 174.656 98.5993
120.466 174.466 99.2916
120.77 174 115.569
120.839 174.708 121.708
120.109 174.065 152.956
120.463 174.82 153.357
120.972 174.752 168.972
120.331 174.612 168.331
120.393 175.037 92.3561
120.197 175.088 122
120.769 175.705 124.769
120.214 175.276 124.214
120.967 175.154 153.187
120.74 175.52 155.78
120.573 176.274 122.846
120.691 176.574 154.574
120 176.653 167.323
120.709 176.397 168.709
120.75 176.816 168.75
120.845 177.203 156.358
120.228 177.45 167.45
120.779 178.312 125.779
120.072 178.909 156.837
120.11 179.052 90
120.681 179.546 126.227
120.023 179.783 158.783
120.642 180.111 126.753
120.262 180.44 156.298
120.043 180.97 159.013
120.348 180.335 166.665
120.661 180.743 166.257
120.286 181.179 127.465
120.123 181.597 127.72
120.986 181.723 146.292
120.432 182 148.939
120.176 182 149.758
120.551 182 154.721
120.667 181.512 155.488
120.343 181.315 159.658
120.759 182 161.862
120.18 182 163.214
120.912 181.603 165.397
120.164 182.246 128.411
120.376 182.785 129.161
120.912 182.907 129.819
120.813 182.585 129.399
120.631 182.369 145.106
120.673 182.327 146.441
120.527 182.473 147.196
120.74 182.26 148.381
120.32 182.68 149.165
120.853 182.147 150.147
120.671 182.318 154.011
120.726 183.264 91
120.278 183.779 91
120.662 183.005 129.666
120.823 184.272 91
120.202 184.952 109
120.766 184.765 109.531
120.668 184.246 109
120.093 184.907 132.703
120.426 184.396 154.426
120.744 185.714 110
120.248 185.334 119
120.989 185.39 119.38
120.12 185.381 130.12
120.621 185.259 154.621
120.565 186.1 119
120.551 186.852 130.551
120.926 187.967 119
120.733 187.302 120.431
120.371 187.215 154.156
120.847 188.31 91
120.789 188.762 118.449
120.699 188.459 120.301
120 188.764 121.038
120 188.822 129.611
120.098 188.249 130
120.334 189.858 95.3344
120.728 189.132 111.132
120.671 189.172 113.172
120.924 190 114.967
120.166 190 115.045
120.688 189.738 117.574
120.525 189.153 118.322
120.161 189.796 129.043
120.62 189.965 151.655
120.503 190 151.368
120.9 191 93.9965
120.446 190.713 94.2869
120.82 190.173 95.6473
120.05 190.406 115.456
120.335 190.751 129
120.462 190.229 150.771
120.516 191.315 93.1689
120.247 191.083 94.9173
120.098 191.54 115.54
120.507 191.223 119.493
120.638 191.569 119.362
120.158 191.91 129.752
120.59 191.823 148.177
120.657 192.507 94
120.447 192.445 116.445
120.933 192.144 116.144
120.567 193 137.973
120.249 193 140.853
120.556 193 141.339
120.717 193 142.63
120.958 193 143.692
120.196 193.383 117
120.01 193.01 121.811
120.12 193.12 122.557
120.32 193.271 130.95
120.854 194 131.322
120.187 194 132.337
120.97 194 132.914
120.145 194 133.524
120.529 194 134.11
120.097 193.097 136.388
120.422 194.365 116.635
120.83 194.453 116.547
120.877 195.031 95.0313
120.104 195.87 95.8699
120.274 195.167 115.833
120.308 196.884 96.8837
120.212 197 97.2527
120.455 198 112.577
120.411 197.232 113.768
120.128 199 109.495
120.103 198.818 111.182
120.393 199.276 105.883
120.685 199.685 106.074
121.946 60.7268 110.273
121.244 60.5982 110.402
121.892 60 112.227
121.572 60.4282 114.708
121.56 60.4397 114.35
121.292 61.631 109.369
121.408 61.062 116.47
121.071 62.6284 103.442
121.102 62.1023 104.06
121.626 62.0005 105.625
121.802 62 107.804
121.46 62 108.547
121.858 63.4888 94.6528
121.462 63.8715 97.3336
121.899 63.7671 103.132
121.946 63.0304 118.976
121.87 64.0612 94.0683
121.055 64.714 119
121.654 65.4457 102.209
121.266 65.6167 102
121.576 65.54 119.117
121.482 66.9909 100.509
121.654 66.4657 121.881
121.831 66 122.875
121.53 66.773 125.773
121.365 66.6346 134.16
121.888 66.2577 135.145
121.825 67.1347 90.3096
121.093 67.8927 91.7993
121 67.5827 91.9227
121.852 67.5746 100.722
121.41 67.573 133.017
121 67.7136 133.982
121.409 67.6923 134.716
121.177 68.0134 91.8232
121.291 68.3951 120.314
121.155 68.1546 133.143
121.861 68.8615 133.392
121.91 68.5286 134.382
121.287 69.0121 91.7246
121.079 69.8233 92.744
121.972 69.4147 100.028
121.939 69.3695 142.631
121.085 69 143.63
121.317 69 145.828
121.029 69 146.445
121.884 69.8835 147.342
121.544 69.5436 148.394
121.304 70.5173 86.7866
121.312 70.3117 87.3419
121.485 70.4845 89.6835
121.963 70.9626 89.2111
121.081 70.0813 90.4097
121.663 70.6626 90.0144
121.226 70.8356 91.6101
121.559 70.4548 92.441
121.47 70.7315 101
121.208 70.8921 134.316
121.877 70.8768 135.912
121.971 70.0727 137.899
121.418 70 140.671
121.836 70.2535 149.418
121.176 70.8063 150.63
121.126 71.6458 101.646
121.439 71.1732 126.388
121.356 71.716 127.64
121.768 71 128.96
121.923 71 130.746
121.549 71.1926 131.643
121.119 71 131.503
121.994 71.9941 132.082
121.105 72.3092 85.7955
121.528 72.7124 102.185
121.627 72.171 126.829
121.894 72.9938 126.006
121.319 72.7881 150.681
121.32 72.3355 155.984
121.43 72.5646 156.135
121.263 73.6183 125
121.606 73.6571 153.343
121.364 73 156.978
121.121 73.0995 158.099
121.847 73.6451 158.645
121.883 74.1645 124.117
121.421 74.0446 125.579
121.041 74.0166 152.983
121.425 74 159.847
121.018 75.3279 124.982
121.346 75.1486 161.494
121.646 75 161.588
121.944 75.8948 162.839
121.339 76.5089 85
121.445 76.5468 124.555
121.34 76.4883 150
121.545 76.7102 150
121.895 76.1393 151.755
121.252 77.7408 85.9924
121.865 77.1049 124.135
121.006 77.7651 125.24
121.911 77.2424 150
121.678 77.0456 163.368
121.93 78.5873 125.342
121.649 78.8697 125
121.937 78.0192 150.981
121.54 78.7801 150.22
121.641 79.2425 86.6406
121.757 80 93.1797
121.691 80 94.8512
121.588 79.1198 124.532
121.55 79.2349 149.55
121.689 79.801 165.112
121.432 80.9604 112.472
121.667 80.6672 113.254
121.878 80.6988 165.122
121.417 81.3307 123.669
121.343 81.4834 124.826
121.908 81.0395 149.908
121.294 81.2981 149.294
121.166 81.2148 150
121.911 81.4971 165.089
121.51 82.6738 88.6738
121.439 82.9169 112
121.563 83 115.768
121.727 83 117.575
121.528 83 119.701
121.752 83 119.063
121.182 83 120.983
121.583 82.2669 121.733
121.441 82.7155 125
121.318 83.6684 90.6817
121.648 83 113.298
121.819 83.3041 115.123
121.02 83.9418 122.079
121.492 83.2216 150
121.317 84.5625 116.88
121.549 84 116.22
121.411 84.1567 121.843
121.097 84.0343 149.097
121.41 84.6692 165.59
121.633 85.0195 117.652
121.352 85.6823 127.682
121.835 85.8534 168.312
121.127 86.5543 118
121 86.7613 128.415
121.814 86.4679 167.718
121.709 87.7281 87.981
121.869 87.8691 88.3765
121.023 87.839 118.862
121.038 87.5099 119.452
121.73 87 119.789
121.182 87.9017 129.72
122 87.9111 164.421
121 87.0323 170.032
121.375 87.9705 171.345
121.967 88.662 87.3046
122 88.8279 88.2877
121.171 88.683 128.854
121.964 88.8355 129.872
121.123 88.7398 130.617
122 88.0573 164.804
121 88.1773 168.679
121.032 89.4255 86.0324
121.894 89.3752 129.269
121.438 89.9113 131
121.45 89.4604 165.089
121.845 89.3149 166.84
121.394 89.4161 167.19
121.454 89.4849 172.454
121.868 90.4825 164.614
121.671 90.8712 165.458
121.363 90.4017 166.235
122 91.6647 87.7655
121.569 91.7353 131.167
121.067 91.4146 165
121 91.3929 166.454
121.07 91.9516 174.022
121.418 92.2738 86.6913
122 92.8948 88.7061
121.944 92.7773 90.7773
121.468 92.8097 92.5318
121.474 92.2201 131.746
121.344 92.4236 132.08
121.056 92.4301 133.43
121.529 92.0783 174.529
121.211 93.0374 132.826
121.841 93.8413 133.595
121 93.5616 174.49
121.315 94.1523 175.315
121.823 95.9586 93
121.312 95.6098 175.922
121.341 100.407 91.7483
121.889 100.938 176.174
121.021 101.161 176.818
121.931 102.317 92.2479
121.641 102.55 174.809
121.778 104.036 180.814
121.539 104.917 181.456
121.876 105.295 93
121.93 106 171.164
121.48 105.275 172.725
121.026 105 177.515
121.883 105.253 182.136
121.63 106.488 92.1425
121.603 107 169.619
121.531 106.921 170.548
121.329 107 170.462
121.615 106.049 171.337
121.122 106.717 182.839
121.991 107.409 168.591
121.963 107 173.866
121.807 107.145 183
121.171 108 92.1712
121.605 108.395 93.692
121.61 108 167.155
121.083 108.352 183.083
121.425 110.726 111.699
121.731 110.97 114.269
121.589 111.802 98.8017
121.415 111.227 111.188
121.519 111.481 113.508
121.422 111.095 114.483
121 111.817 114.519
121.505 111.485 183.991
121.304 111.965 184
121.21 113 102.612
121.966 112.36 111.673
121.338 112.273 112.389
121.633 112.66 183.973
121.32 113.033 105.353
121.951 113.961 106.911
121.559 113.723 111
121.462 113.957 183.462
121.443 114.714 182.729
121.285 115.257 111
121.812 116 181.424
121.433 116.88 111.313
121.237 116.381 178.856
121.181 117.009 111.19
121.918 117.548 112.466
121.926 117.93 156
121 117.947 176
121 117.601 176.086
121.054 117.631 177.423
121.914 118.825 113
121.694 118.579 156
121.191 118.428 176.764
121.808 119.192 92.5878
121.565 119.435 94.9
121.84 119.16 95.4384
121.468 119.631 96.0996
121.745 119.351 156.096
121.872 119.117 176.872
121.966 120.034 87.592
121.394 120.31 89.2961
121 120.077 90.5582
121 120.715 93.1457
121.486 120.667 96.4859
121.426 120.436 113
121 120.544 158
121.958 120.643 158
121.17 120.439 176.17
121.634 121.288 86.3657
121 121.804 87.6049
121 121.513 88.8876
121 121.892 88.2392
121 121.293 90.047
121 121.89 91.2739
121 121.793 93.505
121 121.172 94.2181
121.882 121.42 96.8819
121.28 121.592 157.872
121.178 121.723 158
121 121.766 176.735
121.7 121.703 177.402
121.875 122.689 86.1253
121 122.566 89.8519
121 122.956 89.3272
121.795 122.795 93.7912
121.379 122.379 94.7619
121.073 122.073 95.1572
121.631 122.631 95.9054
121.586 122.66 158.246
121.718 122.72 166
121.697 122.373 166
121.049 122.08 177.049
121 123.807 88.9929
121 123.725 90.0935
121 123.382 91.1388
121.725 123.128 148
121.872 123.392 158.872
121.023 123.593 166
121.721 123.727 166
121.218 123.085 166.085
121.943 123.171 177.943
121.505 123.617 177.505
121.087 124.051 86.9128
121 124.66 88.7828
121 124.584 88.347
121 124.023 90.4761
121.595 124.495 92.5949
121.052 124.53 167
121.778 125.644 86.2215
121.094 125.101 88.9923
121.859 125.649 89.2104
121.554 125.217 90.4458
121.331 125.685 90.6689
121.463 125.893 92.4625
121.522 125.539 112.522
121.394 125.496 112.394
121.822 125.12 159.12
121.117 125.195 165.805
121.31 125.234 167.234
121.548 125.8 175.748
121.747 126.843 84.4101
121.72 126.218 86.0629
121 126.298 87.0564
121 126.77 88.0786
121.273 126.727 89.659
121.579 126.251 92.8298
121.583 126.685 112.583
121.626 126.07 112.626
121.58 127 125.297
121.645 126.644 147
121.403 126.826 157.577
121.241 126.187 168.187
121.133 126.987 168.987
121.756 126.589 175.167
121.088 127.255 84.9122
121 127.06 87.1285
121 127.103 89.432
121.151 127.701 112.852
121.457 127.406 124.457
121.067 127.337 127
121.706 127.228 147
121.909 127.729 149.729
121.802 128 151.12
121.019 128 152.979
121.954 127.821 157.133
121.323 127.017 161.34
121.473 127.199 163.801
121.548 128.44 84.4524
121.801 128.525 84.1992
121 128.714 94.5557
121.742 128.258 96.2982
121.773 128.821 97.5938
121.899 128.714 113
122 128.888 124.546
121.875 128.437 125
121.39 128 124.595
121.433 128.718 147
121.346 128.34 148.66
121.009 128 149.226
121.31 128.649 157.351
121.222 128 158.844
121.802 128 159.21
121.682 128.111 161.429
121.816 129.147 84.1838
121 129.529 86.0243
121 129.109 87.2536
121.454 129.546 98.7728
121.25 129.75 98.1766
121.598 129.402 99.5039
121.768 129.098 152.098
121.238 129.781 152.781
121.562 129.498 156.064
121.228 129.752 163
121 130.019 85.7644
121 130.171 86.8029
121 130.529 88.7774
121 130.845 100.786
121.943 130.865 101.808
121.249 130.592 113
121.362 130.29 153.29
121.543 130.485 153.485
121.493 130.418 155.075
121.018 130.905 163.888
121.905 130 178.582
121.671 130.181 182.181
121.112 131.743 84.8879
121.624 131.731 84.376
121 131.017 87.014
121 131.284 99.5529
121 131.845 100.369
121.773 131.868 101.773
121.775 131.569 155
121.624 131 163.761
121.325 131.472 167.472
121.225 132.745 101.225
121.307 132.669 154
121.946 132.149 154.946
121.169 132.013 154.169
121.13 132 174.01
121 133.811 85.8576
121 133.922 85.817
121 133.2 86.6649
121 133.79 86.0286
121 133.846 87.0681
121.571 133.121 101.571
121.154 133.669 101.154
121.074 133.453 113
121.521 133.489 154.521
121.108 133.814 154.108
121.855 133.349 171.651
121.65 133.535 184.535
121.925 134.344 84.4187
121.197 134.509 85.3119
121.31 134.171 154.139
121.721 134.201 170.799
121.424 134.521 170.479
121.792 134.067 184.933
121.437 134.901 184.099
121 135.296 86.4127
121 135.245 87.2876
121.535 135.497 169
121.17 135.003 170
121.167 136.167 86.8862
121.124 136.124 87.6636
121.536 136.536 88.8284
121.192 136.192 89.4833
121.935 136.935 89.0783
121.274 136.352 90.0782
121 136.069 91.0064
121 136.363 93.6689
121 136.273 96.7939
121.314 136.931 98.3835
121.845 136.845 99.3285
121.243 136.243 100.545
121.401 136.312 113
121.414 136.655 113
121.225 136.659 183.341
121.799 137.799 91.332
121.041 137.64 95.4006
121.2 137.201 97.2058
121.946 137.465 113
121.446 137.607 182.947
121.555 138.013 93.4581
121.769 138.769 94.5697
121.854 138.347 95.5068
121.642 138.363 181.996
121.788 139.424 112
122 139.538 179.953
121.538 139.924 180.538
121.72 139.109 181.171
121.814 140 108.622
121.935 140.719 109.719
121.708 140.315 112
121.283 140.962 178.754
121.055 140.945 179.577
121.811 140.189 179.6
121.279 142.386 99.6142
121.472 142.472 102.844
121.58 142.58 102.238
121.204 142.939 105
121.14 142 111.637
121.79 143.247 98.7534
121.117 143.111 103.994
121.563 144.875 97.1248
121.884 144.072 104.188
121.338 144.918 180.918
121.983 145.977 96.0225
121.884 145.976 96.0239
121.88 148.687 94.1929
121.451 149.912 92.5399
121.173 149.734 182.173
121.169 150.453 92
121.815 151.104 92
121.231 151.37 182.231
121.029 152.584 91.4443
121.979 153.459 91.5203
121 153.699 180.669
121 153.265 181.073
121.53 153.075 182.455
121.172 154.349 91
121.41 154.41 180.792
121.407 154.158 181.249
121.48 155.48 171.837
121.088 155.088 172.872
121.066 155.94 173.874
121.139 156 175.221
121.328 156 177.37
121.447 157.421 90.5793
121.119 157.849 90.1511
121.63 158.747 90
121.587 158.407 177.407
121.086 161.38 90
121.039 161.568 179.607
121.205 162.52 90
121.589 163.603 90
121.553 163.32 179.233
121.435 165.656 178.779
121.748 166.218 90
121.466 166.727 171
121.435 166.038 178.397
121.552 167.435 90.8832
121.558 167.572 133
122 167.956 133.116
121.37 167.173 149.457
121.818 167.187 150
121.162 168.806 91.6441
121.171 168.305 131.866
121.751 168.354 133.397
122 168.038 133.981
121.559 168.277 149
121.566 168.476 150
121.069 168.36 170.429
121.387 168.924 171.387
121.766 168.189 171.766
122 168.409 172.113
121.841 169.319 91.4778
121.311 169.552 92.2409
121.037 169.996 122.968
121.396 169.694 122.298
121.915 169.506 123
121.396 169.635 130.762
121.959 169.28 131.679
121.595 169.429 132.595
121.525 169.56 151
121.354 169.697 171
121.768 169.887 172.655
121.21 169.525 176.475
121.221 170.876 93.8764
121.271 171 94.2266
121.238 171 98.5412
121.682 171 98.5268
121.795 170.425 121.575
121.141 170.378 129.763
121.628 170.822 131.806
121.333 170.067 132.266
121.732 170.24 171
121.184 170.215 172.399
121.981 170.019 174.067
121.086 170.136 175.779
121.996 171.242 96.2372
121.842 171.963 97.0373
121.402 171.051 116.547
121.295 171.107 117.107
121.032 172 118.98
121.075 171.156 119.919
121.802 171.31 120.492
121.907 171.068 123
121.991 172 126.095
121.217 171.798 152
121.856 172.324 113.324
121.379 172.66 127.719
121.268 172.757 170.511
121.051 173.217 99.1667
121.5 173.671 114.671
121.554 173 118.676
121.011 173 119.288
121.161 173.116 120.116
121.597 173.776 125.821
121.441 173.81 170.441
121.085 174.336 93.749
121.806 174 115.733
121.345 174.598 121.598
121.376 174.545 125.376
121.308 174.58 152.888
121.407 174.582 153.011
121.036 174.304 154.267
121 174.155 169.344
121.717 175.009 93.708
122 175.7 93.6893
121.69 175.561 94.8711
121.6 175.6 95.8646
121.799 175.799 95.3361
121.653 175.653 97.1461
121.934 175.368 122.368
121.564 175.613 125.564
121.104 175.16 153.263
121.472 175.058 154.47
121.637 175.753 155.116
122 176.025 98.8054
122 176.253 99.2785
121.131 176.387 123.387
121.665 176.831 123.831
121.81 176.475 125.81
121.534 176.379 154.913
121.31 176.146 155.836
121.899 177.699 126
121.284 177.642 155.642
121.425 177.814 155.814
121.556 177.949 168.608
121.721 177.017 169
121.975 178.747 90.975
121.118 178.755 125.873
122 178.092 126.972
121.293 178.913 168
121.859 178.25 168.609
121.925 179.687 90.9253
122 179.043 127.606
121.638 180.055 90.6925
121.238 180.658 159.658
121.572 181.427 146.855
121.201 181.623 147.825
121.306 181.14 160.446
121.082 182 161.8
121.35 181.846 165.154
121.266 182.46 90.7344
121.149 182.904 90.8512
121.733 183 109.37
121.354 182 147.829
121.861 182 147.143
121.617 182 148.173
121.422 183.286 109.422
121.35 183.818 131
121.249 184.61 91
121.247 184.554 109
122 184.215 109.551
121.63 185 119.098
121.283 184.229 155.283
121.714 185.386 109.714
121.141 185.416 109.141
121.289 185.917 110.206
121.386 185.462 119
121.315 185.614 119.929
121.859 185.084 131
121.692 185.655 133.345
121.516 186.516 97.9204
121.713 186.036 109.75
121.804 186.444 110
121.684 186.96 119
121.428 186.922 120.495
121.986 186.536 120.45
121.292 186.472 131
121.813 187.451 97.5493
121.242 187.978 110.221
122 187.25 155.75
121.543 188.805 91
121.276 188.896 112.896
121.331 188.87 118.13
121.933 188.456 119.067
121.474 189 126.714
121.47 189 128.906
121.153 188.752 153.401
121.982 188.687 154.295
121.109 189.942 91.8325
121.837 189.974 96
121.167 190 115.43
121.971 190 116.837
121.136 189.822 117.178
121.443 189.084 126.443
121.444 189.722 129
121.009 190 151.805
121.637 190 151.385
121.586 189.998 152.002
121.394 190.483 92.0889
121.097 190 95.5748
121.372 190 113.337
121.069 190.04 126.029
121.523 190.497 129
121.818 191 149.918
121.917 191.706 93.2111
121.634 191.901 94.7329
121.513 191.174 95
121.141 192 147.732
121.431 191.812 148.619
121.728 192 148.199
121.158 191.085 149.072
121.236 192.523 94
121.699 192.662 118.301
121.05 193 141.295
121.173 192.175 145.999
121.481 193.609 94
121.804 193.144 117
121.8 193.355 117
121.589 193.589 119.698
121.319 193.843 120.525
121.121 193.052 124.948
121.634 193.756 130.756
121.224 194 136.011
121.028 193.207 137.821
121.455 194.198 120.742
121.568 194.568 121.306
121.794 194.794 122.532
121.544 194.448 132.904
121.58 195.086 94.5057
121.51 195.966 115.544
121.895 196.912 114.983
121.959 196.588 115.371
121.923 198 100.052
121.385 198 112.514
121.828 198 112.766
121.373 197.914 113.086
121.803 198.803 101.158
121.78 198.78 101.658
121.127 198.229 102.102
121.188 199 103.426
121.192 199 104.729
121.628 199.761 105.134
121.798 200 108.607
122.347 60 113.315
122.877 60 114.746
122.008 60.8215 115.829
122.766 60 115.394
122.741 60.4649 116.205
122.937 61.2196 109.78
122.506 61.7557 109.244
122.148 61 116.583
122.046 61.3134 117.313
122.272 62.9376 105.334
122.76 62.7598 106.931
122.691 62.6913 107.568
122.299 63.6677 94.0336
122.847 63.4417 96.5951
122.357 63.3095 119
122.651 64 97.9375
122.969 64.9377 98.9377
122.243 64.7567 101.799
122.597 64.5617 103.035
122.477 65.8773 90.6456
122.148 65.0245 99.0245
122 65.1203 101.905
122.271 65.6016 102.271
122.903 65.3916 119
122.63 65.7086 130.661
122.466 65.5342 133.686
122.063 65.9369 134.895
122.585 65.415 134.085
122.943 65.0565 135.885
122.137 66.2872 90.5755
122.419 66.1229 100.581
122 66.0193 101.98
122.271 66.9222 119.729
122.043 66 123.522
122.988 66.2363 125.236
122.408 66.0079 130.584
122 66.7043 131.878
122 66.2457 132.063
122 66.2066 135.21
122.125 66.1436 136.269
122.66 66.7551 138.415
122.354 67.3601 120.286
122 67.7233 131.241
122 67.1921 136.954
122.635 68.4087 90.3655
122 68.5298 136.372
122.892 68.6527 138.892
122.758 69.0115 90.2536
122.278 69.8446 91.5663
122.122 69.0646 100.878
122.774 69.5249 127
122.519 69.5187 130.577
122.58 69.5804 137.069
122.485 69.0979 138.387
122.745 69.7446 143.664
122.189 69.1887 144.94
122.008 69.0083 144.005
122.856 70.0039 91.1435
122.217 70.0066 126.993
122.221 70.2207 133.989
122.44 70 141.322
122.601 70.5209 147.92
122.617 70 147.224
122.009 70.4713 149.462
122.285 71.2848 87.4738
122.952 71.952 87.4686
122.447 71.4473 88.0173
122.754 71.7537 89.1877
122.459 71.459 90.4153
122.665 71.3711 91
122.048 72 118.078
122.75 71.751 126
122.392 71.8383 126.77
122.717 71.9735 131.256
122.308 71.6797 134.629
122.31 71.3095 135.792
122.961 71.9606 135.238
122.09 71.0903 136.17
122.33 72.217 86.3297
123 72.2149 88.5
122.146 72.4355 118.419
122.899 72.6826 118
122.342 73 125.436
122.605 72.3618 126.033
122.196 72.1962 133.713
122.34 72.3395 133.245
122.662 72.4312 150
122.148 73.3754 102.375
122.889 73.5551 154.334
122.351 73 154.656
122.779 73.192 158.971
122.507 73.7281 159.235
122.404 74.7201 150
122.935 74.7341 153.201
122.158 74 159.885
122.715 74.5023 160.502
122.784 75.7317 124
122.99 75.3523 124.362
122.953 75.5471 150
122.897 75.0758 152.821
122.251 75 161.612
122.783 76.231 162.448
122.042 77.5193 86
122.694 77.9888 126
122.727 77.7806 150
122.85 77.5925 151
122.311 77.9121 163.601
122.164 78.3978 86.5616
122.05 78.53 125.52
122.549 78.1352 126
122.48 80 93.8429
122.498 79.9221 125.498
122.765 80.4207 124
122.913 80.6541 150
123 80.8342 163.508
122.032 82 122.186
122.584 81.0657 150
122 81.8372 165
122.433 83 116.711
122.917 82.3607 119.722
122.663 82.6888 125.663
122.218 82.0833 150
122.175 82.5153 150
123 82.5266 162.636
122.134 82.7735 164.866
122.417 82.1414 164.583
122.412 83 113.488
122.956 83 113.125
122.726 83 114.399
122.855 83.8546 124.36
123 83.8944 125.689
122.141 83.6255 150
122.722 83.7796 150
122.035 83.629 150.035
122.799 83.8815 164.201
122.228 83.0658 164.772
122.343 83.6917 168.035
122.966 84.1019 90
122.051 84.0236 117.024
122.782 84.7326 122.05
122.843 84.8867 149.27
123 84.1857 162.516
122.189 84.3125 164.811
122.094 84.1185 167.787
122.407 84.1431 168.55
122 84.4756 168.362
122.515 84.485 169.618
122.237 84.9556 170.193
122.264 85.148 118
122.214 85.9301 121.214
122.389 85.4477 149.611
123 85.9221 163.401
122.202 85.9886 166.798
122 85.58 167.6
122.414 85.0409 170.455
122.543 86.3326 118.876
122.309 86.0321 120.968
122.725 86.0204 128.02
122.639 86.3376 149.699
122.903 86.8176 163.28
122.185 86.1836 164.631
122 86.0839 167.553
122.116 86.7661 171.116
122.628 87.745 149
123 87.0443 149.521
122.652 87.7009 172.353
122.864 88.011 90
122.453 88.2449 149
122.478 88.4265 149.052
123 88.8984 149.769
122.588 88.7439 164.156
122.28 88.3119 165.72
122.443 88.004 172.447
122.334 88.896 173.23
122.552 89.2208 90.2208
122 89.4922 130.101
122 89.7272 164.862
122 89.5944 166.105
122.456 90.8624 130.456
122.864 90.673 174.537
122.222 91.5984 88.8201
122.302 91.6983 89.8636
122.871 91.7815 90.6526
122.133 91.1849 130.318
122.662 91.7286 131.933
122.16 91.5839 131.256
122.455 92.5469 132.002
122.356 92.114 175
122.852 93.7081 176
122.409 94.4669 91.5911
122.624 94.6533 91.3757
122.876 95.6296 91.7537
122.279 96.0137 176
122.071 96.8821 176.811
122.688 97.384 91.9285
122.45 97.4143 92
122.559 97.6144 176.441
122.501 98.3826 91.1161
122.002 99.2267 91.2288
122.102 100.408 92
122.919 101.78 174.3
122.04 102.575 92.6152
122.233 102.998 173.769
122.927 103.89 93
122.461 103.46 173.539
122.498 103.502 179.661
122.285 104.743 172.972
122.644 104.113 173.243
122.365 104.191 177.445
122.191 104.476 181.476
122.713 105.845 171.442
122.758 105.012 175.988
122.638 105.074 182.074
122.825 106.99 92.8346
123 106.847 93.4978
122.258 106.894 169.848
122.077 107 169.293
122.099 106.446 174.554
122.256 106.592 183
122.707 106.751 183.458
122.385 107.606 92.9912
122.42 107.123 168.457
122.253 107.773 171.48
122.324 107 172.414
122.322 108.647 94.9683
122.253 108.747 95.2566
122.155 108 168.817
122.851 108 169.954
123 108 169.902
122.568 108 170.371
122 110.179 112.377
122 110.858 112.78
122.591 111.366 98.3656
123 111.293 103.251
122.304 112.465 99.4648
122.857 112.435 101.707
122.399 112.223 103.377
122.32 112.695 111
122.961 113.027 106.027
122.173 113.877 106.877
122.428 113.288 110.712
122.921 113.426 111
122.4 114.294 107.694
122.259 114.741 108.677
122.199 116.658 180.541
122.373 117.627 92.0265
122.046 117.954 93.8825
122.595 117.405 94.0176
122.186 117.814 95.0737
122.745 117.775 112.775
122.051 117.866 156.917
122.854 118.639 86.5077
122.357 118.643 87.7794
122.556 118.788 89.3443
122.35 118.911 90.6495
122 118.024 92.6663
122 118.054 94.3966
122.777 118.223 97.7791
122.885 118.115 97.7955
122.642 118.358 101.956
122.974 118.995 102.969
122.891 118.865 113
122.291 118.64 156
122.894 118.852 156.746
122.588 118.025 179.563
122.794 119.206 85.0064
122 119.324 86.878
122 119.289 88.1903
122.141 119.123 89.1409
122 119.556 96.6633
122 119.718 97.2674
122 119.649 98.4346
122 119.606 100.446
122.808 119.268 157
122.037 119.644 177.037
122.645 120.875 83.4806
122 120.342 85.0347
122 120.082 86.8787
122 120.989 98.0126
122 120.196 101.293
122.377 120.102 113
122.536 120.263 157.263
122.087 120.274 177.361
122.69 121.922 82.3874
122.263 121.351 83.3857
122 121.701 84.6946
122 121.195 101.428
122.923 121.398 102.526
122.938 121.617 112.383
122.696 121.755 112.245
122.846 121.22 178.846
122.812 122.171 82.1881
122 122.686 83.0026
122 122.73 97.8537
122 122.027 98.9856
122.413 122.95 100.462
122 122.202 100.525
122.656 122.174 158
122.904 122 158.749
122.325 123 158.714
122.16 123.331 82.8395
122 123.404 84.9542
122 123.962 84.74
122 123.472 93.4248
122 123.486 94.6295
122 123.426 95.57
122.29 123.953 96.3362
122.57 123.794 97.2244
122 123.082 97.9166
122 123.467 98.9652
122.366 123.791 166.425
122.913 123.014 166
122.673 123.935 178.673
122 124.247 94.8204
122.089 124.315 95.7735
122 124.523 99.8772
122.871 124.413 100.871
122.025 124.124 100.025
122.142 124.877 112.735
122.154 124.959 166
122 124.753 177.426
122.435 124.394 178.435
122.194 125.336 82.8056
122.392 125.908 82.608
122 125.471 85.5831
122.413 125.41 95.4132
122 125.305 98.8454
122.78 125.381 100.399
122.72 125.976 113
122.885 125.571 147.457
122.861 125.753 159
122.514 125.458 165.542
122.976 125.244 165.756
122.047 125.62 176.427
122.286 125.286 177.126
122.974 125.974 177.469
122.273 126.162 82.7268
122 126.408 94.2455
122.151 126.849 96.1968
122.532 126.468 96.0041
122.412 126.42 97.1677
122 126.588 97.8135
122 126.763 98.8744
122.366 127 125.956
122.066 127 126.212
122.491 127 148.731
122.408 126.51 160.51
122.248 127 161.697
122.009 126.924 164.076
122.896 126.833 164.167
122.327 127 169.721
122.823 127 169.423
122.845 127 170.047
122.713 127 172.877
122.804 126.921 175.883
122.7 127.686 81.6139
122 127.537 98.5246
122 127.582 99.371
122.016 127.996 100.012
122.379 127.801 113
122.855 127.218 125.855
122.258 127.286 149.544
122.878 127.122 150.023
122.977 127.023 150.435
122.125 128 156.192
122.826 128 157.189
122.507 127.048 162.555
122 128.313 83.4582
122.175 128.876 100.175
122.907 128 126.144
122.906 128.007 147
122.88 128.848 147
122.043 128.4 148.643
122.929 128.035 149.895
122.165 128.098 151.098
122.34 128.343 157.997
122.823 128.823 158.824
122.713 128.713 160.123
122.744 129.836 81.2555
122 129.507 82.0925
122 129.573 83.0374
122.212 129.788 101.237
122.264 129.2 113
122.301 129.509 147
122.106 129.893 147.213
122.947 129.103 148.844
122.633 129.115 152.115
122.114 129.961 152.961
122.316 129.834 156.483
122.315 129.947 162.632
122.963 130.343 81.0367
122 130.883 82.6705
122.311 130.665 102.311
122.964 130.035 113
122.69 130.815 113
122.377 130.727 153.727
122.612 130.859 155.753
122.527 130 179.089
122.125 130 180.974
122.83 130.597 182.597
122.455 131.576 80.9685
122.088 131.722 81.3667
122 131.837 102.558
122.224 131.869 103.093
122.309 131.126 154
122.151 131.007 155.145
122.084 131.476 167.559
122.225 131.992 168.217
122.553 131.507 174.94
122.812 132.18 80.3685
122.988 132.693 81.295
122 132.537 102.868
122 132.799 102.285
122.752 132.806 103.752
122.472 132.739 154.788
122.153 132.013 168.166
122.321 132.568 172.432
122.945 132.985 184
122 133.571 102.467
122.553 133.27 103.553
122.74 133.46 112.719
122.12 133.78 113
122.286 133.243 154.714
122.611 133.687 154.389
122.11 133.465 171.426
122.882 133.644 184
122 134.109 102.591
122.104 134.01 154
122.766 134.089 169
122.75 134.145 170.105
122.026 134.632 184.341
122 135.5 102.377
122.164 135.294 169.457
122.544 136.291 83.7473
122.325 136.986 85.6607
122.206 136.263 102.206
122.084 137.973 86.8893
122 137.681 86.9333
122 137.306 89.4697
122 137.58 89.5795
122.054 137.913 100.142
122.484 137.484 101.282
122.777 137.545 112.678
122.834 137.576 181.59
122.774 137.055 182.171
122.529 138.158 86.6291
122.114 138.114 87.306
122.731 138.731 87.4499
122.669 138.669 88.5773
122 138.522 92.4308
122 138.837 93.0219
122 138.218 96.7034
122 138.498 98.2601
122.523 138.082 100.441
122.282 138.091 112.626
122.632 138.368 180.41
122.097 139.097 90.958
122.788 139.788 92.6957
122.558 139.558 93.225
122.194 139.571 111.806
122.34 139.804 111.66
122.835 139.608 178.557
122.308 140.719 106.589
122.688 140.688 107.982
122.371 140.121 111.629
122.844 141.481 106.844
123 141.515 107.856
122.213 141.66 178
122.395 141.825 178
122.551 142.848 101.296
122.856 142 111.218
122.951 143.134 102.183
122.07 143.221 103.151
122.952 143.198 105
122.134 143.051 179.185
122.084 144.035 103.951
122.869 144.767 181.636
123 145.748 103.016
122.728 145.069 104.341
122.062 145.519 181.581
122.661 146.8 95.2002
122.291 147.451 95
122.338 150.093 93
122.43 150.324 183.43
122.935 153.46 91.5401
122.914 153.975 182.939
122.351 153.245 183.105
122.744 155.669 173
122.645 155.754 173.399
122.262 156 173.83
122.389 156 178.366
122.601 156 179.532
122.088 155.088 180.633
122.715 155.715 180.464
122.082 156 173.201
122.096 156.337 174.433
122.616 156.442 175.058
122.934 157.426 90
122.983 157.141 176.141
122.669 158.301 90
122.424 158.79 178.214
122.056 159.861 90
122.079 160.956 90
122.357 160.613 179.613
122.718 163.9 179.818
122.168 164.756 90
122.795 165 106.545
122.685 164.252 179.432
122.561 165.158 90
122.646 166 135.604
122.961 165.498 170.498
122.375 165.569 179
122.722 166.034 90
122.692 166.144 135
122.343 166.014 170
122.974 166.701 170
122.328 166.316 178.684
122.584 166.837 178.163
122.649 167.295 90.2945
122.427 167.796 149.631
122.763 167.089 170.089
122.041 167.07 171.111
122.045 167.095 178
122.45 168.777 91.2273
122.933 168.057 91
122.767 168.56 123
122.132 168.752 132.38
122.657 168.326 134.674
122.148 168.333 171
122.289 168.017 172.017
122.97 169.479 122.521
122.055 169.431 131.624
122.383 169.965 150.383
122.128 169.872 174.063
122.587 169.413 174.558
122.31 170.101 93.1012
122.39 171 98.7732
122.62 171 114.906
122.922 171 114.499
122.92 170.105 115.974
122.424 170.031 133.393
122.368 170.208 151
122.311 170.924 151
122.142 170.96 171.142
122.246 171.331 96.5777
122.061 171.869 97.0704
122.243 171.87 113
122.745 172 119
122.903 172 120.444
122.981 171.048 121.932
122.281 172 127.428
122.513 171.056 130.944
122.945 171 131.824
122.923 171 132.105
122.572 172 151.902
122 171.935 151.05
122.933 172.702 97.3649
122.979 172.244 123.244
122.348 172.32 151.667
122.314 172.686 152.437
122.943 172.942 171
122.066 173.502 97.9343
122.475 173.969 97.525
122.105 173.041 114.041
122.737 173.597 114.597
122.215 173 118.426
122.555 173.172 119.617
122.564 173.554 127.01
122.18 173.339 171
122.883 173.924 171
122 174.114 98.0799
122.261 174.028 126.233
122.019 174.936 126
122.849 174.296 171
122.045 175.045 98.8255
122.939 175.939 99.4542
122.565 175.481 122.481
122.586 175.384 126
122.161 176.161 92.182
122.774 176 94.6234
122.699 176.699 96.987
122.953 176.953 96.3597
122.185 176.185 97.5702
122.871 176.871 97.7841
122.297 176.624 99.6727
122.299 176.106 123.405
122.383 176.732 126.115
122.904 176.818 155.818
122.259 176.741 169.518
122.614 177.612 91.6138
122.066 177.262 91.0656
122.493 177 99.1036
122.558 177 124.994
123 177.014 126.778
122.736 177.635 127
122.275 177.752 156.752
122.005 178.779 91
122.035 178.864 126.899
122.145 178.477 155.855
122.153 178.75 157.75
122.124 179.204 127.328
122.64 179.045 155.36
122.717 179.179 167.821
122.314 179.984 167.016
122.801 180.781 147
122.235 180.437 159.672
122.617 180.693 160.31
122.315 180.792 166.208
122.529 181.953 130.483
122.861 181.818 150.139
122.157 181.843 162.41
122.684 181.316 162.937
122.917 181.083 163.481
122.422 181.578 164.548
122.949 181.051 164.687
122.588 182.56 90
122.975 182.302 109.723
122.644 182 130.397
122.697 182.598 131.295
122.398 182 149.449
122.062 183.729 90
122.624 183.326 109
122.404 183.809 109.214
122.801 183.169 110
122.236 183.674 131.909
122.877 183.123 133.112
122.816 183.184 133.222
122.821 183.979 134.021
